0.561809 -1.207733 0.9026418
5.133428 -7.412775 14.35403
8.847326 -8.172912 24.92527
-7.007064 -1.727024 16.22917
0 0 0
13.20975 -12.91566 35.33875
7.825538 -7.114439 20.84904
0.412534 -0.9229585 0.8857946
0.004666098 -0.8151281 0.8355308
3.109356 0.4304205 19.83148
0.1413181 -0.9344525 0.797299
-0.1143173 -0.8888562 1.011954
0.01467749 -0.8873871 0.8032482
0.01007821 -0.8861235 0.8408898
0.1069672 -0.8634247 0.9041408
0.10415 -0.8751552 0.7956631
0.0107498 -0.8560758 0.9961019
0.04541858 -0.8529037 1.045677
0.01576261 -0.8835946 1.014951
-0.03592388 -0.8384898 0.9974797
0.2239449 -0.1893898 1.400267
0.08434474 -0.8268142 0.7717592
0.1229782 -0.8121811 0.8498343
0.01136199 -0.8257906 0.6632784
-0.03576757 -0.8111324 0.9374893
0.004471712 -0.7602867 0.5507923
-0.01609821 -0.7649094 0.5475019
-0.03491987 -0.7725512 0.5464129
-0.2682909 -0.6710869 0.7902446
-0.2748773 -0.5725117 0.8086182
-0.2776825 -0.5320998 0.8146161
-0.2785029 -0.510479 0.8149156
-0.2802266 -0.5805852 0.8032923
-0.28245 -0.4749359 0.8256814
-0.2788141 -0.5464242 0.8130487
-0.3003112 -0.6710593 0.8004839
-0.3102899 -0.5731482 0.8234055
-0.2845399 -0.4538935 0.8272607
0.02017297 -0.7879068 0.7449849
-0.2595078 -0.6256881 0.8085369
-0.154096 -0.7746005 0.5085659
-0.4597245 -0.7962621 0.8626901
-0.3024458 -0.8065294 0.5227189
-0.2619928 -0.1951703 1.352182
-0.3094843 -0.3708167 0.8601242
-0.2847642 -0.3928106 0.8728191
-0.5538169 -0.9018754 1.293985
-0.3498864 -0.8203791 0.5671133
-0.4565082 -0.7963838 0.9281136
-0.4801263 -0.8320246 0.6964397
-0.3726286 -0.8061551 0.760546
-0.5821772 -0.7209708 0.5821643
-0.5874115 -0.70578 0.9156223
-0.5701214 -0.7544416 0.5736117
-0.5222728 -0.8169646 0.6330086
-0.5082961 -0.831699 0.6074617
-0.5694655 -0.7965711 0.3284232
-0.564423 -0.7209766 0.5359041
-0.5422565 -0.7257157 0.4071355
-0.2762904 -0.6854784 0.3982884
-0.2764251 -0.7026207 0.4087422
-0.5341529 -0.7102104 0.4228868
-0.6874276 -0.4292103 0.3694431
-0.7292522 -0.1932313 0.4056295
-0.7591268 -0.3003426 0.3385642
-0.739049 -0.1933203 0.3931421
-0.7600849 -0.2309884 0.3454021
-0.6799773 -0.4181906 0.3655247
-0.7027655 -0.4774498 0.3440047
-0.6722867 -0.7264938 0.1005068
-0.6560462 -0.5106333 0.4101041
-0.598447 -0.4796558 0.5039324
-0.7812521 -0.2111187 0.9907511
-0.5874399 -0.4816081 0.5300156
-0.6345931 -0.5157362 0.4554988
-0.6064841 -0.1977412 0.5726179
-0.8115769 -0.2714978 0.3513722
-0.7757978 -0.1824119 0.3602878
-0.3143694 -0.7403715 0.4569479
-0.4505787 -0.6510577 0.5634567
-0.6704104 -0.4698105 0.4250972
-0.5478067 -0.7294022 0.2846724
-0.5547251 -0.4973652 0.2158271
-0.5706252 -0.4967388 0.1979438
-0.7415987 -0.415129 0.3370162
-0.6169657 -0.7385392 0.1055169
-0.7510278 -0.3012049 0.2952866
-0.9716782 -0.6301108 0.4506966
-3.624493 -4.884672 12.41299
-0.4553022 -0.5701972 0.6018808
-0.4156704 -0.703034 0.5209891
-0.285004 -0.717796 0.3846883
-0.265491 -0.5142806 0.7243993
-0.2581518 -0.6380002 0.7246076
-0.2651445 -0.6278068 0.696542
-0.3619113 -0.7079855 0.7073445
-0.1795628 -0.7235683 0.4481889
-0.2322256 -0.7277232 0.3094978
-0.1501978 -0.6918842 0.442649
-0.7033501 -0.6984112 0.1692927
-0.6430962 -0.7248669 0.240923
-0.7801599 -0.4840377 0.2897194
-0.6437619 -0.7271482 0.2469108
-0.668709 -0.7186881 0.2557709
-0.6871901 -0.6966884 0.2644241
-0.5441083 -0.4791926 0.2096295
-1.018388 -0.6970248 0.4365406
-0.5757962 -0.4187736 0.5621278
-0.7842501 -0.2712524 0.3251644
-0.4693562 -0.6310722 0.7487251
-0.2534859 -0.7352221 0.4186909
-0.330077 -0.7075446 0.4409046
-0.8018434 -0.723706 0.3650553
-1.362835 -0.9259347 0.7767469
-0.4887691 -0.7347822 0.537796
-0.5222973 -0.6996609 0.5501817
-0.2504281 -0.6888865 0.5881877
-0.4365853 -0.6442081 0.8742243
-0.5057385 -0.5991222 0.7648789
-0.422568 -0.6975974 0.8572732
-0.2136505 -0.6922184 0.235349
-0.9808336 -0.6207615 0.4774964
-0.700318 -0.7125245 0.02280682
-0.5544702 -0.4846206 0.1622884
-0.518585 -0.6895418 0.1696415
-0.6965859 -0.6952024 0.0302065
-0.2389614 -0.6983904 0.2026225
-0.8048708 -0.6879438 0.2538094
-0.2337055 -0.7082649 0.253273
-0.4320498 -0.6191009 0.7895406
-0.7607717 -0.7004827 0.3464097
-0.3059847 -0.7124441 0.4066161
-0.6061065 -0.6014646 0.1951539
-0.2196724 -0.7130585 0.1697677
-0.2173093 -0.70223 0.2254032
-0.4727966 -0.6019804 0.7766097
-0.5225677 -0.4755558 0.6177521
-0.6067901 -0.1883693 0.6251258
-0.4962685 -0.5942481 0.5998101
-0.4310322 -0.7050209 0.8364379
-0.3307205 -0.7185033 0.5025018
-0.4350707 -0.7210702 0.7143097
-0.4471196 -0.6956212 0.6105174
-0.4369154 -0.6680673 0.7556818
-0.4402725 -0.7091711 0.6251803
-0.3562844 -0.7006788 0.6896872
-0.447633 -0.5947549 0.6330053
-0.5229778 -0.6112729 0.5659655
-0.4770451 -0.7183779 0.5931064
-0.7524514 -0.1987339 0.9131768
-0.616267 -0.4602122 0.4885037
-0.540236 -0.7156487 0.4552217
-0.5350084 -0.7261879 0.4593048
-0.4294698 -0.6752938 0.7605527
-0.2941364 -0.7203375 0.453718
-0.544949 -0.7192547 0.4843555
-0.7696043 -0.291352 0.3439254
-0.7588875 -0.372566 0.345022
-0.7421244 -0.3314123 0.2775435
-0.6455395 -0.4872055 0.4323383
-0.6194413 -0.4839377 0.4661345
-0.754804 -0.2953021 0.2863497
-0.6712222 -0.7162951 0.1619188
-0.6709942 -0.7143468 0.2206972
-0.5304974 -0.707168 0.3442932
-0.7145243 -0.704046 0.2052035
-0.6575984 -0.4838873 0.4124969
-0.5133494 -0.6115246 0.5694506
-0.5390329 -0.6307815 0.5249602
-0.9945244 -0.6893361 0.4592183
-0.9768639 -0.6464782 0.5302638
-0.3154905 -0.7042744 0.4195629
-0.513543 -0.4692012 0.1905106
-0.4693535 -0.5966663 0.6483589
-0.9495298 -0.6573002 0.5445291
-0.575775 -0.6447791 0.4494003
-0.6054178 -0.1453524 0.6860504
-0.5558583 -0.4721324 0.1866744
-0.5390297 -0.6356676 0.3465953
-0.6799889 -0.6457414 0.2982451
-0.2549924 -0.7059903 0.2066232
-0.2569199 -0.7000358 0.2791655
-0.6989782 -0.7216554 0.06009662
-0.6518688 -0.6319112 0.2097915
-0.774381 -0.6057515 0.3252099
-0.6635205 -0.6888586 0.2943765
-0.9356276 -0.6368243 0.5144612
-0.9469889 -0.6462918 0.4943432
-0.3060581 -0.6978441 0.8912488
-0.6764268 -0.6896043 0.2039717
-0.7084778 -0.6980765 0.04185963
-0.2616083 -0.6889107 0.2524568
-0.5324152 -0.6990555 0.284716
-0.7162358 -0.4254001 0.3518641
-0.656278 -0.7085865 0.1620393
-1.131486 -0.7577035 0.5496974
-0.3154112 -0.5615423 0.8443732
-0.2437989 -0.3625709 1.195971
-0.2469208 -0.1538303 1.231222
-0.2459489 -0.0766165 1.218346
-0.3189799 -0.08025505 1.226085
-0.3225615 -0.5409855 0.796605
-0.286497 -0.4053322 0.7853022
-0.2382458 -0.5724764 0.7445362
-0.2254234 -0.7081608 0.3170447
-0.244184 -0.5814106 0.7318755
-0.01125966 -0.6701965 0.5996263
-0.01234032 -0.6720006 0.901623
-0.6064707 -0.7138602 0.2314188
-0.1884318 -0.6785136 0.4640944
-0.3098466 -0.3620633 1.181201
-0.274277 -0.5143031 0.7574569
-0.5119491 -0.7001198 0.2011442
-0.6380336 -0.4543743 0.456812
-0.6158495 -1.463324 0.5699466
-0.6456554 -1.431075 0.4382306
-0.638169 -1.441231 0.3837986
-0.5985275 -1.358491 0.5111583
-0.292881 -0.7031026 0.635005
-0.2014161 -1.334983 0.8155885
-0.4313531 -1.291981 0.8157934
-0.4716682 -1.458397 0.6563721
-0.1502055 -0.6961246 0.3534533
-0.3719267 -1.452048 0.4365678
-0.04736725 -1.37057 0.8781183
-0.3923303 -1.328594 0.7915746
-0.402191 -1.485734 0.3450426
-0.04663257 -0.6678487 0.5760031
-0.02190952 -0.6672288 0.60078
-0.2866139 -0.4811754 0.8278295
0.1176221 -0.1533042 1.333544
0.2013212 -0.7078578 0.4543988
0.1892085 -0.6650194 0.6561941
0.3017654 -0.6964462 0.6466873
0.4468608 -1.366345 0.8921193
0.4482329 -1.430912 0.8551179
0.4375341 -1.442173 0.9356947
-0.1654467 -0.7090446 0.464689
0.4049431 -0.7161435 0.3215001
0.2120183 -0.1597858 1.310809
0.2147897 -0.31445 0.9786896
0.2354695 -0.6635432 0.9457618
0.1069491 -0.06480497 1.334633
0.2826318 -0.6829093 0.6899807
0.7664157 -1.407319 0.299161
0.7511584 -0.7109436 0.6809396
0.6744807 -1.490126 0.6526651
0.4144353 -0.734869 0.3023791
0.6281248 -1.295204 0.7089735
0.8878315 -0.7301419 0.7985741
0.7998416 -0.7163153 0.5860368
0.7853912 -1.005768 0.4259293
0.5531392 -1.339195 0.829446
0.4088845 -0.6945027 0.5471866
0.4785946 -1.290238 0.9610443
0.5023527 -0.7085021 1.000085
0.267395 -0.7166805 0.4410206
0.76098 -1.040278 0.5006965
0.6130185 -0.8646942 -0.2044139
0.5947025 -0.8347304 -0.193146
0.5863247 -0.712502 -0.1337973
0.7799713 -0.7042725 0.429094
0.9546556 -0.7057412 0.8671227
0.7593835 -0.7105597 0.3970163
0.6634445 -0.6918436 0.3093924
0.4750208 -0.7018192 0.7831863
0.4617268 -0.6868422 0.4906153
0.9633618 -0.5329789 0.6351559
0.8425323 -0.7057538 0.407823
0.9288949 -0.7299129 0.7194262
0.5948128 -1.349483 0.8982795
0.6318682 -0.8845841 -0.2590213
1.005459 -0.3300317 0.7651633
0.9042147 -0.5175706 0.7894939
0.8478084 -0.7314869 0.4302822
1.087719 -0.3690939 1.027321
0.8294405 -1.395142 0.7514454
0.7805679 -0.722071 0.382826
0.6754867 -0.750617 0.2972833
0.8967772 -0.7667907 0.444647
0.3993996 -0.684882 0.2397189
0.9547886 -0.5635378 0.723075
0.8067915 -1.365595 0.5795386
0.922371 -0.5087667 0.7952112
0.8401929 -0.6866482 0.6950095
0.6936535 -1.422475 0.9470382
0.5239074 -0.6792731 0.7692543
0.6526425 -0.6436987 1.064484
0.4559986 -0.6903651 0.5711601
0.5972375 -0.6808773 0.9754841
0.4785602 -0.6836929 0.7174542
0.8784844 -0.6495376 0.8051547
0.851374 -0.6091799 0.7698742
1.10528 -1.303499 0.6430187
0.8216692 -1.132282 0.6235517
0.7457749 -0.6712583 0.6775502
0.7831891 -1.248799 0.5594778
0.5915462 -0.6586668 0.2760771
0.4830514 -1.423968 0.6551297
0.5349021 -0.6554437 0.8723984
0.2854279 -0.7035836 0.3806627
0.3210202 -0.6844096 0.5905226
0.7890964 -1.338023 0.7073039
0.6898234 -1.462335 0.6237865
0.9692155 -0.4358589 0.8450443
0.6657279 -0.6614797 0.4460192
0.895304 -0.7938625 0.9475275
0.577767 -0.6872256 0.6055467
0.3981883 -0.6635876 0.6939898
0.4372506 -0.6727203 0.9495351
1.065406 -1.177465 -0.02026755
0.6707513 -0.6819589 0.4516018
0.5920092 -0.6734898 0.3401145
0.9966731 -0.3774664 0.8491664
0.723692 -0.701416 0.6515269
1.004421 -0.4056931 0.598644
0.4235016 -0.6961671 0.5974689
0.3746558 -0.6956382 0.52665
0.5290485 -0.6680207 0.795584
0.4196357 -0.6903763 0.6461151
0.3903143 -0.7218305 0.6051127
0.6034449 -0.676748 0.8915884
0.6300678 -0.6753088 0.4083444
0.671595 -0.6713458 0.4827837
0.7318538 -0.6820894 0.583822
0.8913929 -0.677924 0.815218
0.6543278 -0.7125971 0.9911069
0.4603007 -0.6931499 0.6156796
0.3493922 -0.7056897 0.4415085
0.5421953 -0.6735412 0.4316163
0.5540685 -0.6945014 0.5370117
0.5020913 -0.6743884 0.4927018
0.3684694 -0.6824378 0.4954059
0.3461249 -0.7072178 0.4867284
0.5172538 -0.6735201 0.3851309
0.5521732 -0.6925236 0.4315891
0.6242612 -0.6737191 0.5309317
1.022609 -0.3859561 0.6257297
1.025621 -0.4181934 0.5685895
0.9177562 -0.6647431 0.5967005
0.6052734 -0.6682941 0.6352702
0.659947 -0.7219353 0.7241898
0.6236008 -0.6999754 0.6865243
0.7143312 -0.6828327 0.6421093
1.00358 -0.3475153 0.5689654
0.9725675 -0.4573825 0.6164738
0.9953898 -0.3440169 0.6558881
0.9615099 -0.4167117 0.6176295
0.8733677 -0.7138701 0.3959033
1.02621 -0.3617882 0.5942333
1.003603 -0.3549951 0.6240341
0.9717615 -0.4129544 0.8502612
0.9343982 -0.4779154 0.8219271
0.7428362 -0.6824787 0.5881273
0.684932 -0.6685481 0.6001609
0.7161037 -0.6888711 0.6391657
0.6598312 -0.6792178 0.5958087
0.9718449 -0.4671277 0.654773
0.9721659 -0.4178318 0.6744996
0.9752212 -0.480973 0.6680841
0.9896054 -0.3540769 0.7527367
0.9383483 -0.527827 0.6010206
0.9454893 -0.5167413 0.6171722
0.9909053 -0.3231455 0.8598489
0.7255824 -0.6831658 0.5304795
0.9067281 -0.6685429 0.6278331
0.6030972 -0.6921368 0.7042745
0.6635919 -0.6915908 0.7952636
0.5762341 -0.6882526 0.6928064
0.7169479 -0.7102789 0.6324991
0.7101185 -0.6940307 0.7626712
1.017873 -0.3532157 0.6662866
0.7499654 -0.6772833 0.4463154
0.9837407 -0.4408509 0.7952003
0.8527664 -0.6872717 0.5038676
0.9033009 -0.6435026 0.6537064
0.8939037 -0.6581493 0.6816661
0.6975285 -0.7097424 0.6946902
0.8367239 -0.69471 0.3789553
0.8981323 -0.7101262 0.4363684
0.7370225 -0.6703322 0.6645676
0.8726845 -0.766984 0.7623628
0.8512045 -0.7614052 0.7505515
0.8601807 -0.6387408 0.6937172
0.7786159 -0.7035254 0.6776439
0.9103572 -0.6685579 0.6567656
1.024213 -0.3427165 0.5954878
0.7783777 -0.6859098 0.650445
0.7235974 -0.7031334 0.8048125
0.948025 -0.485218 0.7624796
0.7679963 -0.7033204 0.7273477
1.000762 -0.4088114 0.7114263
0.9805393 -0.3728688 0.7652428
0.9828017 -0.4135415 0.7098646
1.013505 -0.4039367 0.5661383
0.9623131 -0.4642224 0.6830273
0.8929554 -0.6670711 0.7394279
0.9697069 -0.4605019 0.6575956
0.9514669 -0.506506 0.6559098
0.9914596 -0.3946195 0.7123239
0.903061 -0.6612515 0.6338898
0.9662706 -0.4628884 0.7047042
0.964964 -0.469638 0.7155638
0.8924255 -0.6471355 0.7382911
0.9632862 -0.3887277 0.8686142
1.027176 -0.3583689 0.6042473
1.019173 -0.3183278 0.6525292
1.008788 -0.3593179 0.6695791
0.9717925 -0.4604021 0.6411835
0.975737 -0.4277281 0.6666678
0.9385068 -0.5361056 0.6736508
0.9835083 -0.393039 0.7496774
0.8751434 -0.665521 0.8640046
0.984516 -0.4225191 0.6217036
0.9551685 -0.5003351 0.634782
0.956797 -0.4586283 0.7418491
0.886462 -0.6565255 0.7778155
0.8809464 -0.6612833 0.8111792
0.9667784 -0.3986366 0.835115
0.9655835 -0.475464 0.680118
0.9508718 -0.5010476 0.6667576
0.9723985 -0.4009606 0.7731905
0.982 -0.3531747 0.7957611
0.9667138 -0.4165855 0.7727513
0.9708207 -0.392811 0.8464471
0.9324319 -0.4796057 0.8370505
0.9204976 -0.5401609 0.8219371
0.9794577 -0.3569281 0.8714123
0.9484169 -0.4266461 0.859282
0.939808 -0.4615992 0.8237644
0.9937896 -0.3575813 0.7744378
0.9912458 -0.3128419 0.7968356
0.9444814 -0.467346 0.7736898
0.6735938 -0.4890189 1.289643
0.5300394 -0.7492155 1.071765
0.5155677 -0.7266628 1.065293
0.5267537 -0.7343955 1.093169
0.6401086 -0.7323994 0.8934915
0.6559675 -0.7303231 0.9469154
0.6495115 -0.7383038 0.9385709
0.6178558 -0.7366787 0.9246924
0.4593065 -0.7432762 1.019361
0.4094111 -0.728436 0.9234992
0.5388241 -0.7757611 1.092351
0.3328293 -0.7329028 1.097455
2.267964 -5.094582 8.73853
0.2435575 -0.6358969 0.8826092
0.7254044 -0.7230402 0.728958
0.7314124 -0.722123 0.7655201
0.6739635 -0.7289538 0.6938061
0.6825887 -0.7273843 0.8176833
0.6147592 -0.7291251 0.7334983
0.6089475 -0.7350705 0.7286357
0.6374867 -0.7329879 0.9095224
0.5256776 -0.7085425 0.853781
0.4678026 -0.7173726 0.7807492
0.3448842 -0.7111732 0.8697845
0.3089366 -0.7037431 0.8413753
0.3114267 -0.7056723 0.8637426
0.1029119 -0.7046559 0.8549443
0.9826136 0.1415636 8.02977
0.8887756 -0.6793414 0.7992311
0.880078 -0.6781129 0.8391322
0.6716069 -0.7007319 0.5968722
0.7458558 -0.7094461 0.6864129
0.7023104 -0.6983339 0.6909201
0.6045299 -0.7038157 0.6440349
0.5920271 -0.7037471 0.6408541
0.3844844 -0.698079 0.6882765
0.7059666 -0.7357991 0.978856
0.3609824 -0.6922126 0.7317431
0.4543829 -0.7130034 0.6627832
0.567978 -0.7189501 0.7952666
0.4283665 -0.6924989 0.6487749
0.5423842 -0.7010156 0.8999035
0.4284271 -0.7143417 0.6751848
0.4178096 -0.711846 0.6290797
0.3957892 -0.6888812 0.6299983
0.6034852 -0.6943598 0.8453645
0.5578444 1.481269 0.45151
0.3198561 1.460091 -0.009510756
0.6603155 1.46336 0.6622927
0.5230589 1.523588 0.4615266
0.294571 1.455123 -0.008006096
0.5397669 1.475831 0.4993309
0.1287082 -0.6625685 0.4967436
1.082742 -0.2677616 0.4777535
0.9486951 -0.4779011 -0.2237256
1.125979 -1.047834 0.5051758
0.9497321 -0.5282988 -0.2239069
1.081125 -1.255104 0.3022619
1.077381 -0.3341444 -0.1902974
1.064431 -0.3637277 -0.1769533
1.07405 -0.4889714 -0.1939902
1.060109 -0.4112318 -0.1812834
1.064475 -0.4895133 -0.1821004
1.000517 -0.2425064 -0.1769247
0.9504168 -0.4828463 -0.234987
0.948037 -0.5175908 -0.2380905
1.028504 -0.2530338 -0.3442335
1.002216 -0.5265309 -0.4128276
0.9573648 -0.5326823 -0.4039951
1.057589 -0.292467 -0.2657373
1.019959 -0.2559833 -0.2753178
0.9339275 -0.5362837 -0.4012806
1.087801 -0.4780982 -0.2094797
1.082466 -0.4263183 -0.1940199
1.103195 -0.2958179 -0.4842675
1.161259 -0.4800931 -0.4752528
1.088731 -0.534386 -0.3991339
1.113025 -0.4518729 -0.3606666
1.101488 -0.3136356 -0.4060391
1.100457 -0.5138138 -0.452358
1.056313 -0.513593 -0.3923324
1.049671 -0.5366162 -0.3931475
1.110354 -0.4285582 -0.3952712
1.151055 -0.4813147 -0.6736702
1.077583 -0.5061073 -0.7184315
1.074857 -0.5251304 -0.7263886
1.064107 -0.5154778 -0.7160558
1.098831 -0.3004394 -0.6247303
1.135425 -0.4914088 -0.6368909
1.095378 -0.3120189 -0.6126564
1.083603 -0.2663108 -0.5801957
1.068356 -0.2588025 -0.5226686
1.11859 -0.4343469 -0.5081158
1.282774 -0.2130619 -0.7240236
1.168184 -0.4253387 -0.8174882
1.256711 -0.2073925 -0.7224798
1.162751 -0.2202704 -0.7390975
1.150399 -0.2892156 -0.7571496
1.167095 -0.2514991 -0.7331749
1.163056 -0.3927404 -0.7541628
1.141281 -0.2355762 -0.7342728
1.167664 -0.3121147 -0.7356783
1.149827 -0.2569378 -0.7257092
1.286916 -0.1754178 -0.6337118
1.159524 -0.203704 -0.7045751
1.13658 -0.2335794 -0.7078764
1.158877 -0.4415626 -0.7325019
1.16298 -0.326148 -0.7051556
1.273436 -0.1839478 -0.681717
1.303605 -0.1577972 -0.6490616
1.191783 -0.4016998 -0.6913503
1.07039 -0.5056475 -0.7720125
1.18726 -0.1727386 -0.6467495
1.164071 -0.3657349 -0.6852844
1.171036 -0.3059918 -0.7224998
1.147378 -0.4880779 -0.7083276
1.061715 -0.5136599 -0.697116
1.120675 -0.4377254 -0.4591264
1.098135 -0.4975764 -0.9743668
1.191934 -0.2815692 -0.8921047
1.186911 -0.363373 -0.8891917
1.182381 -0.4603384 -0.896893
1.161815 -0.4823808 -0.897137
1.150858 -0.3783806 -0.6592991
1.099016 -0.2172085 -0.5019482
1.064643 -0.5257757 -0.764787
1.130476 -0.3793208 -0.4267884
1.028926 -0.5420814 -0.4572723
1.208481 -0.2931048 -0.9279923
1.172428 -0.3928255 -0.7136993
1.183836 -0.2292572 -0.7419917
0.4189333 -1.007003 -0.4871339
1.145643 -0.4875074 -0.5086442
1.102505 -0.2862475 -0.4489073
1.108722 -0.3260216 -0.4351372
1.134943 -0.4679575 -0.4456547
1.006111 -0.5316945 -0.432707
0.9482703 -0.4753554 -0.3926937
0.5086845 -0.9652473 -0.480525
0.4772652 -0.9399764 -0.5061982
0.935273 -1.366944 0.07269835
0.4730229 -0.9415272 -0.4051871
0.7038846 -0.9002144 -0.3939391
1.077624 -1.062932 0.2808921
0.981033 -1.354579 0.2853536
0.8377883 -0.7071913 0.3965271
0.7421271 -1.381537 0.3025456
0.7798781 -1.015948 0.4176596
0.7322884 -0.7931551 0.3992127
0.7744099 -1.336115 0.5283864
0.6981326 -1.326432 0.2248636
0.7753532 -1.398197 0.739174
0.7477695 -1.301738 0.7397703
0.7662113 -1.246016 0.5139717
0.8326688 -1.315321 1.03546
0.6673397 -1.380062 0.717012
0.7597098 -1.273198 0.6720469
0.5295577 -1.508191 0.802325
0.5035361 -1.343611 0.7777787
0.5557206 -1.380445 1.073431
0.6485007 -1.400517 0.7326894
0.5681168 -1.394884 0.8701011
0.4285169 -0.7110654 0.7892911
0.07338107 -0.691368 0.6562957
-0.07279568 -0.6524649 0.8391544
-0.005798481 -0.7181503 1.011102
0.000598751 -0.6410935 0.58761
0.1202189 -0.367688 1.383775
0.1278044 -0.07460929 1.346321
0.1210505 -0.355135 1.264047
0.08153874 -0.5349645 1.055342
0.2684622 -0.7313247 1.100666
0.08019111 -0.4879904 1.098582
-0.2589301 -0.1647323 1.427018
-0.1245472 -0.6926904 0.3389006
-0.2460505 -0.4036707 1.435834
-0.2372859 -0.6962046 0.276791
-0.1977362 -0.7026632 0.4683613
-0.1934529 -0.6904441 0.4965653
0.2454812 -1.368992 0.8946157
-0.3566148 -0.6724474 0.6997863
-0.2319657 -0.1562407 1.253765
-0.3973348 -0.7024708 0.8807584
-0.2679968 -0.6744347 0.3742183
-0.4287078 -0.6658609 0.6652623
0.06049638 -0.6307716 0.8338184
-0.4777207 -0.668607 0.5688578
-0.4615729 -0.5836339 0.671276
-0.3100474 -0.5127646 0.7448974
-0.2385719 -0.7044722 0.2196026
-0.2634751 -0.6895404 0.2511556
-0.3864569 -1.412815 0.7343602
-0.5230837 -0.5977274 0.5873263
-0.5096235 -0.6356866 0.693228
-0.3315441 -0.7117391 0.4979328
-0.3454578 -0.7369584 0.4974825
-0.3746313 -0.7103469 0.3612838
-0.6197206 -1.465049 0.5554317
-0.5161071 -0.7158108 0.1676334
-0.54686 -1.431268 0.5174799
-0.5976374 -1.343252 0.4885156
-0.5422131 -0.6203047 0.2948812
-0.6472353 -0.1489815 1.094384
-0.6691854 -0.07090487 1.130904
-0.5197584 -1.474023 0.2772316
-0.5483967 -0.7112164 0.3892415
-0.6677635 -1.446671 0.5014602
-0.6134908 -1.518803 0.8003517
-0.6655995 -0.4586343 0.4460495
-0.682914 -0.5052896 0.4673284
-0.7627635 -0.3189817 0.3158309
-0.7734405 -0.2877907 0.3248527
-0.7064131 -0.7051771 0.04174834
-0.5391328 -0.7269049 0.2216442
-0.6090883 -1.47001 0.5181406
-0.660746 -1.446895 0.4445781
-0.9507251 -0.6404094 0.4835228
-0.8162414 -0.1528519 0.3909359
-0.7377202 -0.6861358 0.3331925
-0.8335337 -0.702127 0.4278336
-0.7132196 -0.3502237 0.4141508
-0.5547676 -0.663962 0.5409793
-0.7628002 -0.355959 0.3527877
-0.8222654 -0.6357402 0.3649638
-1.047435 -0.706285 0.4999257
-0.8057419 -0.4879448 0.3322664
-0.6924109 -0.7146737 0.1991152
-0.6957408 -0.7053646 0.2782747
-0.8635094 -0.9461437 0.1413625
-0.5686338 -0.5158191 0.2337223
-0.4742146 -1.455767 0.6347574
-0.6864478 -1.380824 0.5079395
-0.2684577 -1.439815 0.5288838
-0.9681724 -0.7246704 0.02171707
-0.9395511 -1.080859 0.07505572
-0.8323843 -0.6485699 0.3370697
-0.4861811 -0.6988214 -0.5245252
-0.5426586 -0.8897532 -0.4676327
-0.6980249 -0.7276878 0.2595597
-1.506079 -1.270262 0.2308807
-1.457705 -1.02189 0.1976258
-1.495943 -1.178497 0.2279588
-1.608544 -1.299096 0.2477292
-1.062318 -1.291636 0.06891298
-0.6920617 -0.9393628 0.1454787
-0.7497687 -0.7187107 0.2968535
-0.6803318 -0.9581918 0.08312523
-1.437809 -0.7747076 0.08458555
-1.769952 -1.206705 0.1020248
-1.619855 -0.4439224 0.07353652
-1.536156 -0.8476873 0.07554626
-1.720369 -0.4591932 0.07214177
-1.631436 -0.7735059 -0.02154076
-1.618453 -0.7665863 -0.3163759
-1.754305 -0.4973987 -0.06364357
-1.647296 -0.7635467 -0.2734112
-1.827844 -0.7785766 -0.2620188
-1.789611 -0.6643405 -0.2610751
-1.819092 -1.080377 0.7325784
-1.412847 -0.7741742 -0.4599694
-0.3772963 -0.4742693 -0.8242666
-1.729663 -1.029656 0.3344728
-1.419106 -0.7904416 -0.5818443
-1.371575 -0.8440835 -0.6084586
-1.53058 -0.8585466 0.0384562
-2.099784 -0.7381791 -0.2323472
-2.161546 -0.6783806 -0.1896554
-1.817294 -0.7796108 -0.3769909
-0.3645772 -0.6498801 -0.6498019
-0.9387216 -1.049626 0.1660736
-1.310117 -1.357867 0.261459
-1.326723 -1.321497 0.2303555
-1.798643 -1.147296 0.81633
-1.356259 -1.056291 0.212168
-1.325318 -1.414947 0.2884612
-1.471918 -1.300398 0.2480026
-1.514217 -0.9886784 0.2766178
-1.479236 -0.807753 0.1246407
-1.493283 -1.229916 0.2429793
-1.511924 -1.289464 0.2287384
-1.530302 -1.020961 0.2151704
-1.662693 -0.7707505 0.0259434
-1.752522 -1.071908 0.04990709
-1.557847 -0.9213754 0.06129575
-1.241731 -1.378031 0.03908789
-1.501524 -1.235909 0.2278532
-1.813558 -1.378636 0.1053089
-1.669048 -0.7558884 0.02206743
-1.754711 -0.4644387 0.0194205
-0.7834077 -0.7162992 -0.5972295
-1.668004 -0.771453 -0.310104
-1.771703 -0.7568101 -0.2380694
-1.720057 -0.7776023 -0.2268634
-2.212685 -0.6752408 -0.1947166
-1.830554 -0.7858469 -0.4028926
-2.215302 -0.7733028 -0.2121221
-1.571499 -0.771544 -0.4971619
-1.441819 -1.287006 -0.540087
-2.186166 -0.6496413 -0.2739114
-2.118927 -0.7409971 -0.2123257
-2.003201 -0.7494791 -0.3686873
-1.935207 -0.7553337 -0.4359238
-1.416153 -0.7715806 -0.6393397
-2.225272 -0.8631973 -0.3601919
-1.466389 -0.7839412 -0.5991719
-2.261439 -0.5484426 -0.07257891
-1.512969 -0.7699906 -0.617667
-2.275641 -0.7429116 -0.2917756
-2.176991 -0.6684941 -0.2320819
-2.238714 -0.6510157 -0.4080573
-2.226212 -0.7582546 -0.3636096
-2.218571 -0.6565969 -0.3475797
-1.570018 -1.46148 -0.3602623
-1.526881 -1.484612 -0.5823314
-2.76576 -0.1628896 -0.2408316
-2.323657 -0.7838097 -0.4026574
-2.467583 -0.7664788 -0.4411482
-2.771024 -0.8312998 -0.4717308
-2.684611 -0.6739792 -0.5978962
-3.080584 -0.7427178 -0.4962412
-2.829468 -0.9292827 -2.416645
-1.746726 -1.042689 -2.051991
-1.762169 -0.1651931 -2.3214
-1.576095 -0.185504 -2.277398
-1.345743 -0.4721389 -2.28246
-1.953663 -0.171933 -2.350405
-1.920183 -0.2654721 -2.410355
-1.663999 -0.3538789 -2.292116
-2.27983 -0.5396554 -2.491311
-1.784049 -0.4756604 -2.353549
-1.583212 -0.6066474 -2.301243
-1.612599 -1.333264 -1.272887
-1.957904 -0.2969764 -2.360843
-1.220925 -0.95417 -2.109097
-1.530538 -0.7589748 -2.332559
-0.9007491 -0.9768003 -2.042049
-1.602172 -0.7769994 -2.335947
-1.404969 -0.79384 -2.346625
-1.822934 -0.4769661 -2.371054
-0.831769 -0.9454225 -2.055445
-1.362569 -0.7931296 -2.340313
-1.004063 -0.9906124 -2.220277
-1.522565 -0.3187309 -2.409557
-1.350365 -0.5687532 -2.339489
-1.421607 -0.5083044 -2.383847
-1.609638 -0.7082348 -2.340694
-1.176259 -0.9863462 -2.541007
-2.39028 -1.206213 -2.124391
-1.424619 -0.683977 -2.34849
-2.25297 -1.09333 -2.061692
-1.446889 -0.7675362 -2.367663
-1.343698 -1.059268 -2.126969
-0.9341047 -1.086058 -2.493701
-1.372101 -0.5509894 -2.313441
-2.772531 -1.470386 -1.747749
-1.144498 -1.006688 -2.706274
-0.9475421 -0.9843767 -2.030685
-0.924762 -1.107352 -2.482193
-1.417391 -0.3073856 -2.333685
-1.390475 -0.5423352 -2.337965
-1.189646 -0.9924263 -2.689017
-1.684378 -0.7109953 -2.275208
-1.248182 -0.9737072 -2.114991
-1.197051 -1.032134 -2.529795
-1.311499 -0.7722594 -2.331392
-1.747505 -1.080883 -2.296249
-1.631132 -0.860689 -2.24687
-2.559976 -1.074241 -2.177248
-3.004503 -1.016173 -1.984299
-1.570592 -0.3169973 -2.414787
-1.508923 -0.2951242 -2.410579
-1.654397 -0.09807874 -2.358071
-1.669654 -0.6788838 -2.374066
-1.508046 -0.9369376 -2.167288
-2.414885 -1.174941 -2.069343
-2.912744 -0.9938917 -2.423425
-2.20052 -1.163988 -2.136593
-2.890789 -0.980052 -2.542441
-2.041792 -0.1944832 -2.424255
-1.615352 -0.8979194 -2.319368
-1.251584 -0.03895436 -2.357828
-1.230225 -0.04273961 -2.453971
-1.224762 -0.003722742 -2.453273
-2.832537 -1.047985 -2.134476
-2.953455 -0.8717493 -2.110658
-1.986892 -0.9390471 -2.241943
-1.558827 -0.7260719 -2.364553
-2.006329 -0.3476563 -2.47005
-1.252884 0.04664142 -2.321029
-3.296453 -1.501491 -1.70749
-3.081488 -0.8246962 -1.786117
-3.131913 -0.8906388 -1.810411
-2.85883 -1.515361 -1.841634
-1.273242 -0.5146308 -2.294297
-1.428198 -0.5145748 -2.406076
-1.267365 -0.04085356 -2.342439
-1.569609 -0.743241 -2.321708
-1.438455 -0.5874875 -2.375403
-3.23505 -0.9031897 -1.726419
-2.885771 -0.9085031 -1.715275
-3.331238 -0.989256 -1.774867
-3.036966 -0.9696429 -1.908961
-3.015874 -0.9282003 -1.918416
-2.043007 -0.4609044 -2.410957
-2.06788 -0.5116884 -2.437346
-3.157337 -0.8888485 -1.85562
-3.006378 -0.8421761 -1.728966
-3.167636 -0.823078 -1.743971
-3.019875 -0.7708482 -1.685213
-3.085255 -1.003876 -1.878295
-3.081558 -0.853601 -1.676113
-3.273243 -0.9265451 -1.612554
-3.129049 -0.8048037 -1.628051
-2.926847 -0.6950901 -1.555342
-3.126498 -0.5903903 -1.477013
-3.185398 -0.7952869 -1.646792
-3.34576 -0.7085282 -1.61385
-3.04508 -0.9625764 -1.636952
-3.054637 -0.9849581 -1.701486
-3.134459 -1.062116 -1.718357
-2.82911 -0.8671042 -1.618205
-3.106418 -0.8796291 -1.653328
-3.631081 -1.319272 -1.925207
-3.03545 -0.8754406 -1.754306
-3.076278 -1.052774 -1.9304
-2.952754 -1.02667 -1.933416
-3.106694 -0.8768293 -1.846942
-3.162877 -1.050414 -2.027686
-3.312109 -1.166222 -2.068859
-3.421904 -1.239501 -2.302851
-2.987372 -1.088715 -2.20174
-2.613618 -0.9639707 -2.137509
-2.831847 -1.089454 -2.21166
-3.007436 -1.127831 -2.275677
-2.753508 -0.7912317 -1.286304
-3.117584 -0.5960221 -1.447302
-3.032997 -0.9708001 -1.717202
-3.155863 -1.038982 -1.94216
-3.223175 -1.076964 -2.053859
-3.096811 -0.6253588 -1.174846
-1.97732 -0.8086863 -1.416892
-2.426915 -0.7079996 -1.299802
-2.355337 -0.8950785 -1.327717
-2.189506 -0.7889162 -1.260815
-2.938679 -0.5965801 -1.197062
-2.564907 -1.020387 -1.46421
-3.151803 -0.7804784 -0.9167103
-2.19641 -1.016119 -1.271799
-2.50877 -1.189435 -1.319354
-3.01356 -0.6631826 -1.206677
-2.733318 -0.6470785 -0.6022575
-2.700248 -0.7134411 -0.6229488
-2.5438 -1.026127 -1.459147
-3.106256 -0.7255723 -0.3010406
-3.140718 -0.7287737 -0.3284889
-1.718231 -0.7856368 -0.866569
-1.99898 -0.8625212 -0.9500082
-1.956521 -0.9682029 -1.311776
-3.029048 -0.5304353 -1.415689
-2.984018 -0.9556576 -1.541984
-2.646894 -1.460607 -1.717652
-2.796228 -0.5460035 -1.16336
-2.699893 -0.7801804 -0.3306693
-2.430073 -0.6745015 -0.4490498
-2.096029 -1.411339 -0.8118646
-2.582791 -1.517027 -1.475616
-2.291639 -0.6141003 -0.373789
-2.904994 -0.7919792 -1.414709
-2.220275 -0.6469101 -0.4178991
-2.01128 -1.455567 -1.455345
-2.036988 -0.7846646 -0.4146547
-2.18083 -0.7481005 -0.3480698
-1.859856 -1.477862 -0.4366863
-2.66479 -0.6530584 -0.6757369
-2.230121 -0.7426611 -0.26299
-2.525301 -0.6384808 -0.1178572
-1.591113 -0.7619899 -0.6074369
-1.558999 -0.7801239 -0.5902803
-1.859406 -0.751283 -0.4236406
-2.194408 -0.6567741 -0.2692243
-2.692193 -0.7152858 -0.7357638
-1.360367 -0.7729353 -0.6514279
-1.777182 -0.7632849 -0.4232284
-1.404755 -0.760323 -0.6530197
-2.136685 -0.6586071 -0.285951
-2.063136 -0.7403793 -0.3559451
-2.762022 -0.6987576 -0.3893602
-2.689564 -0.7561448 -0.3734772
-2.160557 -0.9828016 -1.304332
-3.293974 -0.7486532 -0.6357378
-1.579783 -0.7640754 -0.5233033
-1.567573 -0.7800919 -0.5666294
-2.052503 -0.7513885 -0.2764494
-2.17998 -0.7203724 -0.2686282
-1.71277 -0.7731535 -0.512691
-1.729835 -0.7669037 -0.595878
-2.312421 -1.478661 -0.3883505
-2.657752 -0.7895023 -0.4963529
-1.455731 -0.7781324 -0.5970414
-2.111836 -0.7440734 -0.226235
-1.835906 -0.7614325 -0.390541
-2.118063 -0.6347785 -0.2442242
-2.868898 -0.7061806 -0.2017698
-1.939065 -0.8214364 -0.8066498
-1.756827 -0.7644905 -0.2564461
-1.811905 -0.7525207 -0.225963
-1.75245 -0.7695316 -0.2782497
-1.814451 -0.7648016 -0.2421511
-2.204484 -0.168024 -0.1310112
-1.799384 -0.7660124 -0.3965843
-2.19496 -0.7178363 -0.305333
-2.233037 -0.6829839 -0.3674247
-2.848934 -0.2072628 -0.1869139
-2.782134 -0.7118297 -0.7175806
-3.230971 -0.7892442 -0.6750863
-1.983853 -0.7645794 -0.1104429
-2.225237 -0.6904585 -0.2577039
-2.148552 -0.7948557 -0.4228075
-2.653224 -0.727106 -0.7476395
-2.233471 -0.6836562 -0.3797174
-2.778919 -0.6762118 -0.4673237
-3.298695 -0.7391726 -0.6465292
-2.173413 -0.7120122 -0.1684514
-2.770672 -0.5920851 -0.2101648
-2.003371 -0.7359428 -0.8565438
-1.879804 -0.7660121 -0.4329334
-2.136456 -0.6653158 -0.2798459
-2.16768 -0.6812322 -0.284447
-2.362878 -0.6115639 -0.138332
-2.072676 -0.7071797 -0.4303969
-2.737616 -0.7044733 -0.5006423
-2.290467 -0.7210175 -0.01172674
-2.153467 -0.8025832 -0.4614149
-2.962966 -0.7477261 -0.1842691
-2.802671 -0.6201488 -0.3550802
-2.115947 -0.729403 -0.1762098
-2.376797 -0.6140381 -0.2403072
-2.226839 -0.7768919 -0.447932
-2.758516 -0.6590906 -0.1066062
-2.726126 -0.6254739 -0.3701022
-2.715433 -0.752395 -0.4044765
-2.698095 -0.7651696 -0.4363476
-2.866383 -0.7324979 -0.4594091
-2.738394 -0.7456025 -0.7172962
-1.817268 -0.7670215 -0.209344
-1.787852 -0.7770073 -0.2476661
-1.754154 -0.7734805 -0.2518166
-1.862669 -0.7710425 -0.211277
-2.743973 -0.721988 -0.7360567
-2.693275 -0.7198551 -0.6253332
-3.149804 -0.7418254 -0.3681167
-2.432847 -0.7550131 -0.4504548
-2.739778 -0.6598718 -0.3309307
-2.251566 -0.7695562 -0.4252855
-2.839509 -0.5621513 -0.2296158
-2.177108 -0.7101086 -0.3963778
-2.212622 -0.7145778 -0.4096153
-2.052292 -0.7563137 -0.3083431
-2.925696 -0.67753 -0.1374556
-2.8408 -0.5577654 -0.2169474
-1.911864 -0.7603339 -0.4518144
-2.841118 -0.1848533 -0.2085741
-2.178124 -0.7494454 -0.3816359
-2.238182 -0.6608001 -0.3883767
-2.754641 -0.7256253 0.04375768
-2.134419 -0.7606189 -0.239408
-1.895903 -0.7673854 -0.4491469
-2.171067 -0.6422609 -0.3649942
-1.948759 -0.7518395 -0.2572304
-2.1331 -0.7448465 -0.2480878
-2.530254 -0.6738635 -0.1098706
-2.176952 -0.7672907 -0.4355862
-3.067414 -0.7631335 -0.4690755
-1.988173 -0.7508324 -0.285307
-2.218909 -0.6845073 -0.4114786
-2.406159 -0.6466286 -0.09658265
-3.097211 -0.7305008 -0.5197679
-2.2067 -0.7139743 -0.4102195
-2.825366 -0.1693094 -0.233999
-3.138072 -0.7233534 -0.3299907
-2.379406 -0.7360066 -0.3992419
-2.469316 -0.7772475 -0.5361311
-2.773458 -0.6410792 -0.1734166
-2.956643 -0.7401074 -0.1500955
-2.930294 -0.7328081 -0.4451441
-2.199341 -0.5590596 -0.1574823
-2.21132 -0.7410226 -0.4113776
-3.260639 -0.7335801 -0.3493723
-2.947142 -0.7842916 -0.4562701
-2.719993 -0.657162 -0.6042389
-2.396982 -0.5834929 -0.1833413
-2.558936 -0.6755461 -0.3594228
-3.127683 -0.7125962 -0.5067631
-3.054214 -0.7577587 -0.549506
-3.225483 -0.6901363 -0.519664
-3.082984 -0.753911 -0.5975193
-2.729305 -0.7085397 -0.7345874
-2.685567 -0.723655 -0.5650437
-2.747518 -0.7119157 -0.7610878
-3.247085 -0.763207 -0.6071615
-3.004185 -0.6739733 -0.384451
-3.000737 -0.7315236 -0.3120053
-3.273388 -0.7466913 -0.6451442
-2.79669 -0.745593 -0.8330574
-3.075694 -0.7612724 -0.3439069
-3.184317 -0.6909506 -0.3026713
-2.942906 -0.7371142 -0.5135663
-3.195216 -0.6950719 -0.5917857
-2.290175 -0.6204385 -0.318617
-2.456485 -0.6678609 -0.3466924
-3.07731 -0.7822066 -0.1532009
-2.710077 -0.7926519 -0.4543205
-3.113898 -0.7395102 -0.218026
-3.020561 -0.7806866 -0.5694035
-2.793491 -0.7327923 -0.8112506
-2.344996 -0.7559007 -0.2016156
-2.564439 -0.603979 -0.1763811
-2.40853 -0.7687222 -0.3766792
-2.745924 -0.6491045 -0.2642825
-2.886295 -0.7814649 0.1728115
-2.791821 -0.6371476 -0.1925225
-2.6756 -0.7469022 -0.2869111
-1.997968 -0.7862865 -0.5913744
-1.751419 -0.7665046 -0.2688429
-1.961336 -0.7888111 0.08442152
-1.81361 -0.6626223 -0.215163
-1.871449 -0.7352191 -0.2369961
-1.798436 -0.7143363 -0.2531173
-1.959341 -0.7302584 -0.008173943
-2.289716 -0.7780923 -0.3845345
-2.721492 -0.6397954 -0.2052519
-2.085757 -0.7746046 -0.5359359
-1.959918 -0.7620194 -0.7206355
-1.787862 -0.7536401 -0.4005519
-1.612761 -0.769244 -0.6054471
-1.92298 -0.7456232 -0.1941597
-1.414095 -0.7537479 -0.5438972
-1.51476 -0.7551645 -0.3337007
-1.633892 -0.6376704 -0.1491332
-1.494451 -0.7542666 -0.6264974
-1.500927 -0.7586447 -0.5560588
-1.595753 -0.7605864 -0.5233764
-1.560562 -0.7548862 -0.6485902
-1.882048 -0.7296277 -0.2063034
-1.758559 -1.456767 -0.4115147
-1.491318 -0.7578971 -0.5898768
-1.515404 -0.7555058 -0.6165817
-1.594784 -0.7380826 -0.515851
-1.758101 -1.034362 0.5348172
-1.223669 -1.424776 -0.09493798
-1.742634 -0.4962256 0.1769049
-1.797733 -1.020456 0.7062194
-1.482904 -0.7570489 0.0939728
-1.246973 -1.356499 0.03672028
-1.495287 -0.7511811 -0.5273889
-1.368311 -0.9139218 0.2286777
-1.394317 -0.9056802 0.1821791
-1.382689 -0.9041448 0.2683421
-1.367613 -1.032623 0.1972837
-1.416861 -0.7455683 -0.6234971
-1.424379 -1.460539 -0.1453812
-1.46055 -1.448585 -0.1322134
-1.60457 -0.435524 -0.09375489
-1.783323 -1.023083 0.6120876
-1.515779 -0.9598323 0.2319319
-1.434211 -1.486845 -0.1227795
-1.864135 -0.6411669 -0.01261342
-1.17037 -0.964726 0.1934135
-1.166157 -1.023654 0.193988
-1.093341 -1.373337 0.5154142
-1.64795 -1.32129 0.1028907
-1.536257 -1.384205 -0.2888126
-1.515656 -1.374713 -0.2675107
-1.70802 -0.6699166 -0.03364241
-1.249796 -1.252675 0.2167852
-1.109946 -1.296093 0.122141
-1.478828 -1.006172 -0.004705787
-1.346672 -0.738908 -0.6532074
-1.52599 -1.298197 -0.3793311
-2.181051 -0.7537277 -0.2271578
-2.267911 -0.7637471 -0.2989917
-1.757091 -0.7970567 -0.1450684
-1.97833 -0.7314829 -0.3818985
-1.463155 -1.505047 -0.6593971
-1.841115 -1.11837 0.9194158
-1.510146 -1.470196 -0.6929705
-1.524992 -1.502501 -1.043999
-1.62203 -1.494255 -0.9065194
-1.588571 -1.423887 -0.2265269
-1.483178 -1.508787 -0.6989955
-1.722905 -1.45635 -0.9181437
-1.478576 -1.375682 -0.4760295
-1.73249 -1.47925 -0.9421016
-1.418873 -1.415987 -0.5842984
-2.173438 -0.7331613 -0.4898934
-1.203881 -1.434473 -0.7149411
-1.320553 -1.260369 0.174912
-1.581294 -1.440971 -0.9569352
-1.627505 -1.436418 -1.021591
-1.520232 -1.432248 -0.711166
-1.581081 -1.465606 -0.9418788
-1.513634 -1.379947 -0.01693785
-1.852255 -0.7296143 -0.4407291
-1.477726 -1.364747 -0.4834071
-1.573844 -0.735091 -0.04272902
-1.493133 -1.52811 -0.6160522
-2.360517 -0.7466645 -0.4037321
-1.344781 -1.437107 -0.1784172
-1.549331 -1.410136 -0.2762572
-1.395886 -1.275203 0.2091107
-2.119234 -0.6324242 -0.2656436
-2.133569 -0.7154653 -0.2707151
-1.782348 -0.6636799 -0.307982
-1.603157 -0.8290108 -0.4759835
-1.954255 -0.7451589 -0.4559168
-1.425182 -1.419532 -0.56378
-1.744311 -1.414255 -0.9137674
-1.657916 -1.274492 0.2863194
-0.9182831 -1.402124 -1.764307
-1.000435 -1.424003 -1.478918
-1.024753 -1.412253 -1.595179
-1.365239 -0.6245757 -2.291194
-0.8493852 -1.527293 -1.800272
-0.5895817 -1.314123 -1.902947
-0.6243142 -1.268011 -2.042139
-0.7262717 -1.105884 -2.212069
-0.4853654 -1.425026 -2.01453
-0.7355831 -1.345339 -1.99406
-0.3890499 -1.429123 -1.910381
-1.09592 -1.031266 -2.018213
-0.6299999 -1.318695 -1.881985
-0.6338376 -1.327251 -1.867551
-0.6487759 -1.31662 -1.869049
-0.9418907 -1.146574 -1.923539
-0.9169489 -1.216141 -1.971712
-0.7108313 -1.466941 -1.768148
-0.8903978 -1.016268 -2.034082
-1.001522 -1.014359 -2.20854
-0.8599869 -1.137485 -2.128426
-0.7877526 -1.249167 -2.079463
-1.121243 -0.9818865 -2.518395
-0.684127 -1.193781 -2.119354
-0.6412973 -1.3931 -1.830875
-0.6171593 -1.376194 -1.844218
-0.6007189 -1.389593 -1.865414
-0.6418767 -1.382429 -1.852146
-1.122752 -1.012439 -2.674612
-0.5348451 -1.106288 -2.156405
-0.5220755 -1.143475 -2.142795
-0.4453536 -1.392381 -2.145613
-0.5381936 -1.060467 -2.232654
-0.6822748 -1.223041 -2.553097
-0.5983654 -1.023467 -2.219167
-0.5232386 -1.172943 -2.126569
-0.3884174 -1.230522 -2.124557
-0.4774238 -1.153063 -2.150416
-0.3715606 -1.252044 -2.129979
-0.3464456 -1.231936 -2.142495
-0.4184167 -1.17921 -2.148297
-0.3325102 -1.24204 -2.142547
-0.4324721 -1.263907 -2.121138
-0.3418824 -1.0999 -2.098703
-0.2176701 -1.382531 -2.167753
-0.3204497 -1.175664 -2.174293
-0.3654369 -1.44714 -2.141654
-0.3445053 -0.9065784 -2.545235
-0.1978693 -1.13966 -2.239381
-0.2630659 -1.098228 -2.215477
-0.2300734 -1.092624 -2.228264
-0.0370466 -1.423208 -2.45407
0.02693868 -1.460686 -2.423013
-0.3142326 -1.406918 -2.143596
-0.2719343 -1.161275 -2.200116
-0.1579742 -1.205522 -2.483954
0.4381949 -1.018324 -3.920041
0.2114777 -0.4435502 -2.500663
0.8719574 -1.431499 -1.254929
0.8318579 -1.456622 -1.248746
0.882221 -1.455201 -1.222244
0.9989485 -1.475891 -1.193392
0.9212902 -1.452272 -1.203162
0.8022529 -0.5497173 -1.490879
0.8162432 -0.5071687 -1.481535
0.7573971 -0.5111016 -1.516686
1.900058 -0.4544009 -1.940186
1.081207 -0.1048331 -2.242055
3.546866 -0.6604264 -2.481881
1.939863 -0.4112179 -1.949742
1.831666 -0.3173738 -2.000784
0.8353295 0.1521074 -1.587751
0.7435617 -0.4693664 -1.5277
0.8035558 -0.3806956 -1.500974
3.462633 -0.6327087 -2.94527
0.8215021 0.1327209 -1.582738
0.806855 -0.4943805 -1.508149
0.8049754 -0.343012 -1.509265
0.7977794 -0.4012774 -1.494885
0.7662482 -0.4781795 -1.494753
0.8118067 -0.3996122 -1.503816
0.8058205 -0.3395023 -1.508862
0.7533483 -0.4776329 -1.506009
0.8296459 -0.5151516 -1.419187
0.8125541 -0.43471 -1.417893
0.8181154 -0.5112585 -1.518973
0.8048749 -0.4913896 -1.421216
1.219032 -0.5200289 -1.123519
1.472866 -1.472874 -1.030151
1.249564 -0.5070462 -1.093531
1.338802 -0.501825 -1.032932
1.266316 -0.5239393 -1.048312
1.275693 -0.4936545 -1.042151
1.118479 -0.5387037 -1.042619
1.220055 -0.5443451 -1.001456
1.192081 -0.5665397 -1.069125
1.266104 -0.5014017 -0.9667624
1.343992 -0.5552329 -0.9367422
1.068186 -0.5243167 -1.021633
1.211905 -0.5451388 -1.04862
1.08966 -0.5563884 -1.084161
1.177646 -0.5219038 -0.9769473
1.276632 -0.5138977 -0.9350967
1.117502 -0.545562 -0.9776441
1.378214 -0.5098158 -0.978746
1.232003 -0.5116261 -0.9341872
1.165685 -0.4620139 -0.949828
1.174481 -0.2592567 -0.9396862
1.214973 -0.4332292 -0.9150358
1.194454 -0.2988901 -0.9283423
1.226058 -0.4117262 -0.8822929
1.187499 -0.3728308 -0.9020557
1.183815 -0.5232137 -0.8790683
1.177892 -0.4765011 -0.7102203
1.278404 -0.4065723 -0.9200072
1.086138 -0.5550797 -0.7190757
1.17516 -0.462827 -0.6816356
1.156538 -0.3563848 -0.6713572
1.123512 -0.5425773 -1.022874
1.115891 -0.4750863 -0.375538
1.130064 -0.4322561 -0.3634492
1.0725 -0.5623609 -0.3574272
1.105424 -0.3493668 -0.4345548
1.062103 -0.532594 -0.4155548
1.106281 -0.4750397 -0.3562417
0.8707263 -0.8606919 -1.369556
1.007029 -0.5289893 -1.137777
1.321567 -0.5475265 -1.083919
1.137663 -1.519311 -1.184364
1.119166 -0.5600033 -1.007541
1.125221 -1.508628 -1.100704
0.4330463 -1.545998 -1.221464
0.905332 -1.429518 -0.8778815
0.9075055 -1.530279 -0.3177084
0.7475774 -1.391651 -0.4979044
0.9126576 -1.474202 -0.2140703
1.419776 -1.439171 -1.054824
1.065443 -1.479925 -1.124333
1.071241 -1.504783 -1.070805
0.7499855 -1.498105 -0.7400653
0.7432813 -1.482717 -0.5784205
0.7938283 -1.477311 -0.4750949
0.7669595 -1.500756 -0.5310649
1.332644 -1.307149 -1.049265
1.094362 -1.494977 -1.080537
0.5372008 -1.411429 -0.7880284
0.5235707 -1.385375 -0.7772348
0.7996689 -1.508421 -0.4497399
0.49992 -1.498119 -0.7404176
0.5745369 -1.470298 -0.7943958
0.5695432 -1.542067 -0.8035645
0.5080351 -1.532036 -0.7541331
0.7277657 -1.488536 -0.5137662
0.5429093 -1.422163 -0.7782407
0.5563467 -1.036325 -0.6895779
1.358899 -2.013358 -0.7474562
0.8493373 -1.450817 -1.647288
0.7863051 -1.451154 -1.597677
0.8720976 -1.576459 -1.521528
0.8180439 -1.517782 -1.603833
1.395393 -1.399796 -1.052787
0.8351049 -1.520159 -1.284461
0.7345999 -1.488102 -0.8975075
0.714238 -1.443417 -0.9141229
0.9193998 -1.460339 -0.3607758
0.6300231 -1.46269 -0.6260133
0.5861923 -1.424742 -0.6602325
0.9048536 -1.494536 -0.3081346
0.5855849 -1.445528 -0.7332146
0.6951153 -1.458123 -0.4671928
0.8107814 -1.459101 -1.353575
0.3215756 -1.42031 -1.140351
0.9400145 -1.462425 -0.4523337
0.5692128 -1.028481 -0.7347176
1.086861 -1.466472 -1.076097
0.6593741 -1.813535 -0.4634269
0.8327172 -1.484057 -1.419694
0.5097494 -1.494117 -0.7986978
0.7322276 -1.469234 -0.5994006
0.8119035 -1.495339 -1.634805
0.8882954 -1.639039 -1.483944
0.910219 -1.736252 -0.6423501
0.744323 -1.395349 -0.4728264
1.164896 -0.5700692 -0.9830717
